ply
format ascii 1.0
comment Created by Open3D
element vertex 1415
property double x
property double y
property double z
property uchar red
property uchar green
property uchar blue
end_header
-0.08905 -0.04987 0.0336 0 0 255
-0.01639 -0.04398 -0.20516 0 0 255
0.07219 -0.06445 -0.03269 0 0 255
0.05577 -0.06438 -0.03156 0 0 255
0.05319 -0.06352 -0.03843 0 0 255
-0.12083 -0.06362 -0.01464 0 0 255
0.10674 -0.06511 -0.02555 0 0 255
-0.24749 -0.0005 -0.00393 0 0 255
0.03662 -0.08832 0.05162 0 0 255
-0.25575 0.05158 0.00308 0 0 255
0.28332 -0.01838 -0.02944 0 0 255
-0.2057 -0.03736 0.01621 0 0 255
-0.16328 -0.01734 0.02639 0 0 255
-0.35398 0.09879 0.05938 0 0 255
-0.34463 0.09884 0.03305 0 0 255
-0.03354 -0.04715 -0.21605 0 0 255
0.00207 -0.04255 0.2189 0 0 255
0.00283 -0.05838 -0.07047 0 0 255
-0.02809 -0.04777 0.13768 0 0 255
0.06801 -0.05082 0.11686 0 0 255
-0.06264 -0.07007 -0.01554 0 0 255
-0.05638 -0.07033 -0.01502 0 0 255
-0.20385 0.01637 0.00495 0 0 255
-0.07094 -0.06874 -0.01834 0 0 255
-0.01361 -0.05174 -0.0422 0 0 255
-0.24566 -0.00531 -0.013 0 0 255
-0.03903 -0.04381 0.31141 0 0 255
-0.01059 -0.05452 -0.12051 0 0 255
0.16851 -0.03194 -0.03504 0 0 255
0.10538 -0.03224 -0.03513 0 0 255
0.2329 -0.03849 -0.03584 0 0 255
0.04514 -0.05477 -0.13992 0 0 255
0.05337 -0.01101 -0.02811 0 0 255
-0.3353 0.09948 0.08855 0 0 255
-0.23712 0.05122 0.00305 0 0 255
-0.095 -0.01936 -0.03094 0 0 255
-0.35537 0.098 -0.03974 0 0 255
0.01538 -0.09067 0.03949 0 0 255
-0.01654 -0.04668 -0.15644 0 0 255
-0.16454 -0.01623 0.04517 0 0 255
-0.1039 0.00944 0.00347 0 0 255
0.33002 -0.02098 -0.0119 0 0 255
-0.09848 -0.00284 -0.04936 0 0 255
-0.20655 0.00768 -0.00646 0 0 255
0.30738 -0.02595 -0.02751 0 0 255
-0.23093 0.02535 -0.00397 0 0 255
-0.0867 -0.07307 -0.00481 0 0 255
-0.06888 -0.07283 -0.00762 0 0 255
0.31355 -0.00694 -0.00724 0 0 255
0.08836 -0.05038 -0.05156 0 0 255
0.12729 -0.07401 -0.00901 0 0 255
0.30068 -0.00192 0.01059 0 0 255
0.27139 -0.00865 0.02603 0 0 255
0.01135 -0.05725 -0.0899 0 0 255
0.07157 -0.0176 0.03139 0 0 255
0.03858 -0.09611 -0.05235 0 0 255
-0.28409 0.05476 0.00269 0 0 255
0.02561 -0.05049 0.02974 0 0 255
-0.09518 -0.00513 0.06328 0 0 255
0.12239 -0.07147 -0.01528 0 0 255
-0.32539 0.0904 0.00045 0 0 255
-0.13376 -0.01672 0.03863 0 0 255
0.30805 -0.01925 -0.02387 0 0 255
0.07597 -0.05691 -0.08832 0 0 255
0.32512 -0.01993 -0.01568 0 0 255
0.11275 -0.05748 0.0309 0 0 255
0.20957 -0.06655 -0.02374 0 0 255
-0.02904 -0.04756 -0.1826 0 0 255
0.06082 -0.01539 -0.03041 0 0 255
0.17363 -0.06349 -0.02661 0 0 255
0.12764 -0.00058 -0.02003 0 0 255
-0.02629 0.00268 -0.01806 0 0 255
0.02671 0.00097 -0.01926 0 0 255
0.05715 -0.00023 -0.02016 0 0 255
0.20842 -0.00017 -0.01915 0 0 255
0.03261 -0.05838 0.08072 0 0 255
0.01904 -0.05386 0.15099 0 0 255
0.01283 -0.05299 0.16295 0 0 255
0.02433 -0.05647 0.10933 0 0 255
0.02031 -0.05479 0.13586 0 0 255
-0.10947 -0.06957 -0.00493 0 0 255
-0.11771 -0.06786 -0.00166 0 0 255
-0.31129 0.09934 -0.01773 0 0 255
-0.32098 0.09939 -0.03373 0 0 255
0.01531 -0.05041 0.02329 0 0 255
-0.00603 -0.05074 0.04159 0 0 255
0.05703 -0.04766 0.04173 0 0 255
0.05631 -0.04746 0.04887 0 0 255
-0.01467 -0.06566 -0.02306 0 0 255
-0.28881 0.0089 -0.00184 0 0 255
-0.08251 -0.02988 -0.04175 0 0 255
0.03437 -0.05241 0.17491 0 0 255
-0.16599 -0.01672 -0.06277 0 0 255
0.33748 -0.02672 -0.00898 0 0 255
-0.14535 0.00042 -0.01832 0 0 255
0.15054 -0.03574 -0.03555 0 0 255
0.06273 -0.06817 -0.02546 0 0 255
-0.253 0.07938 -0.00226 0 0 255
-0.05748 -0.0072 0.06014 0 0 255
-0.10298 -0.01929 -0.0703 0 0 255
-0.09577 -0.02189 -0.03783 0 0 255
-0.0279 -0.04706 -0.26644 0 0 255
0.07976 -0.06767 0.02613 0 0 255
0.0006 -0.04432 -0.17084 0 0 255
0.01168 -0.0452 -0.13949 0 0 255
0.17794 -0.05225 -0.03339 0 0 255
0.00552 -0.04198 0.25846 0 0 255
-0.12917 -0.02685 0.06632 0 0 255
-0.19589 0.02207 0.00445 0 0 255
-0.01768 -0.04947 -0.11411 0 0 255
-0.01675 -0.05026 -0.09947 0 0 255
0.2295 -0.06927 -0.02038 0 0 255
0.00911 -0.04969 0.13812 0 0 255
-0.13456 -0.00189 0.0209 0 0 255
-0.12329 -0.00301 0.02241 0 0 255
0.27162 -0.02189 0.03222 0 0 255
0.06567 -0.04745 -0.09914 0 0 255
0.31698 -0.02791 -0.02505 0 0 255
0.02911 -0.05525 0.13099 0 0 255
0.01498 -0.05185 0.18237 0 0 255
0.03034 -0.05556 0.12624 0 0 255
0.03091 -0.10609 0.05111 0 0 255
-0.01456 -0.05172 -0.04781 0 0 255
0.07395 -0.04909 0.08727 0 0 255
0.27535 -0.07517 -0.00806 0 0 255
-0.24637 -0.02395 0.01308 0 0 255
0.18402 -0.06312 -0.02695 0 0 255
0.00953 -0.04827 0.07488 0 0 255
-0.14852 0.0032 0.00579 0 0 255
0.01916 -0.06231 0.04253 0 0 255
0.06361 -0.06124 -0.05853 0 0 255
0.04873 -0.06391 -0.03471 0 0 255
0.07429 -0.06505 -0.02786 0 0 255
0.08055 -0.03089 -0.03498 0 0 255
-0.09353 -0.012 -0.02918 0 0 255
-0.08971 -0.01487 -0.03069 0 0 255
0.10394 -0.07397 0.00811 0 0 255
0.12881 -0.07479 0.00316 0 0 255
0.22732 -0.07502 0.00663 0 0 255
0.1135 -0.074 0.00837 0 0 255
0.32467 -0.06729 0.01874 0 0 255
0.01432 -0.09125 -0.05322 0 0 255
0.14536 -0.0636 -0.02638 0 0 255
0.20985 -0.05452 -0.03254 0 0 255
0.08721 -0.06173 -0.04851 0 0 255
0.17803 -0.06682 0.02311 0 0 255
0.15745 -0.06593 0.02408 0 0 255
-0.01076 -0.04956 0.21486 0 0 255
-0.01688 -0.04898 0.22443 0 0 255
-0.02609 -0.04762 0.25219 0 0 255
0.20238 -0.06643 -0.02383 0 0 255
0.11871 -0.05229 -0.0332 0 0 255
0.00782 -0.04596 -0.12557 0 0 255
0.0735 -0.07604 0.01557 0 0 255
-0.25689 0.00885 0.00263 0 0 255
-0.16376 0.00606 0.01092 0 0 255
-0.10063 0.00832 0.00928 0 0 255
-0.0285 -0.04253 0.27559 0 0 255
-0.07551 -0.0314 0.0436 0 0 255
-0.30991 0.09998 0.00213 0 0 255
0.05802 -0.05341 -0.1401 0 0 255
0.00447 -0.05365 -0.14846 0 0 255
0.0916 -0.06314 -0.03716 0 0 255
-0.05263 -0.04242 -0.03543 0 0 255
-0.01514 -0.04313 -0.03537 0 0 255
-0.0022 -0.04573 -0.03504 0 0 255
0.12809 -0.01852 -0.03154 0 0 255
-0.33297 0.09905 0.09632 0 0 255
-0.00391 -0.05153 0.18006 0 0 255
0.2802 -0.04086 -0.03527 0 0 255
0.11456 -0.04351 -0.03544 0 0 255
-0.06948 -0.03804 -0.03599 0 0 255
0.13416 -0.04301 -0.03553 0 0 255
0.17175 -0.04257 -0.03562 0 0 255
0.05814 -0.04515 -0.03518 0 0 255
-0.06283 -0.03944 -0.03582 0 0 255
-0.34196 0.09872 0.02018 0 0 255
0.00809 -0.04435 -0.27621 0 0 255
-0.11666 -0.02464 0.06897 0 0 255
-0.00414 -0.05496 -0.11951 0 0 255
-0.16459 -0.01986 0.06202 0 0 255
-0.26895 0.0075 -0.00338 0 0 255
0.34672 -0.06841 -0.008 0 0 255
0.0341 -0.04811 0.0423 0 0 255
-0.27222 0.04442 -0.00291 0 0 255
0.27203 -0.0675 0.00169 0 0 255
0.01104 -0.04562 0.27011 0 0 255
-0.25098 -0.02784 -0.00979 0 0 255
-0.00283 -0.0482 0.09761 0 0 255
-0.3266 0.09582 0.07236 0 0 255
0.03442 -0.04396 -0.17838 0 0 255
-0.29294 0.10604 -0.00115 0 0 255
-0.07306 -0.01945 0.03512 0 0 255
-0.25875 -0.0182 0.01192 0 0 255
-0.03025 -0.04395 -0.24695 0 0 255
0.0289 -0.06019 -0.04876 0 0 255
-0.09863 0.00955 -0.00307 0 0 255
-0.31323 0.09897 0.04907 0 0 255
0.01545 -0.09482 0.04882 0 0 255
0.22023 -0.01665 -0.03049 0 0 255
0.26151 -0.06629 0.02456 0 0 255
0.226 -0.06878 0.02099 0 0 255
0.22032 -0.06814 0.02177 0 0 255
-0.25397 -0.02476 0.01082 0 0 255
-0.02491 -0.045 -0.30745 0 0 255
0.20724 -0.07292 0.01321 0 0 255
0.26581 -0.07185 0.01677 0 0 255
0.15236 -0.07062 0.01784 0 0 255
-0.05996 -0.0055 0.04868 0 0 255
0.30342 -0.03699 -0.03159 0 0 255
0.35658 -0.06387 0.00893 0 0 255
-0.02422 -0.04543 -0.2055 0 0 255
-0.09311 -0.01957 -0.02437 0 0 255
-0.28862 0.00767 0.00283 0 0 255
-0.20642 0.0021 0.00546 0 0 255
-0.0208 -0.04578 0.30021 0 0 255
-0.00484 -0.04172 0.26862 0 0 255
-0.01212 -0.04148 0.28578 0 0 255
0.07736 -0.06472 0.03045 0 0 255
-0.31148 0.0952 -0.04048 0 0 255
0.27656 -0.07095 -0.01848 0 0 255
-0.06438 -0.01801 0.01407 0 0 255
0.00822 0.00804 0.00734 0 0 255
0.1053 0.00701 0.00919 0 0 255
-0.04031 0.00927 0.00268 0 0 255
0.25032 0.00604 0.00897 0 0 255
0.22692 0.00626 0.0087 0 0 255
-0.06881 0.0097 0.00145 0 0 255
0.02424 0.00794 0.00732 0 0 255
0.05653 0.00782 0.00673 0 0 255
0.0056 -0.04215 0.23962 0 0 255
0.01171 -0.04232 0.22783 0 0 255
0.31366 -0.07323 -0.01077 0 0 255
-0.00311 -0.05609 -0.09996 0 0 255
-0.0088 -0.04548 0.13667 0 0 255
0.0032 -0.0527 -0.16386 0 0 255
0.00583 -0.05189 -0.17864 0 0 255
-0.32428 0.09642 0.08064 0 0 255
-0.1884 -0.0027 -0.01822 0 0 255
-0.27633 -0.022 0.00605 0 0 255
-0.10048 -0.03091 0.04306 0 0 255
-0.0397 -0.04954 0.13338 0 0 255
0.01573 -0.05042 -0.02077 0 0 255
-0.01658 -0.06308 -0.02624 0 0 255
0.24647 -0.07154 -0.01721 0 0 255
-0.25288 0.08778 0.00073 0 0 255
-0.17587 -0.02594 -0.02682 0 0 255
-0.03488 -0.04358 -0.26977 0 0 255
-0.30388 -0.01165 0.00444 0 0 255
-0.07051 -0.01539 0.03543 0 0 255
0.01879 -0.03911 0.03593 0 0 255
0.04169 -0.04248 0.03551 0 0 255
0.13486 -0.0441 0.03538 0 0 255
0.03136 -0.03888 0.03598 0 0 255
0.21801 -0.04029 0.03596 0 0 255
-0.30795 0.09459 -0.01852 0 0 255
-0.01387 -0.05399 0.1314 0 0 255
-0.33634 0.09931 0.04532 0 0 255
-0.34013 0.09939 0.06166 0 0 255
-0.00408 -0.06148 -0.04179 0 0 255
-0.34881 0.09906 0.05737 0 0 255
-0.31003 0.09948 -0.00934 0 0 255
0.01325 -0.05106 -0.13287 0 0 255
-0.16329 -0.01042 0.04938 0 0 255
0.0075 -0.06024 -0.05629 0 0 255
-0.14992 -0.05512 -0.01569 0 0 255
-0.12252 -0.05971 -0.02 0 0 255
-0.01063 -0.04601 -0.15427 0 0 255
-0.11425 -0.01867 -0.04184 0 0 255
0.03786 -0.05057 0.01671 0 0 255
0.0131 -0.05899 -0.00476 0 0 255
0.02682 -0.04317 -0.19236 0 0 255
-0.23707 -0.01929 0.0161 0 0 255
-0.03311 -0.0441 0.25381 0 0 255
-0.00851 -0.06225 -0.03313 0 0 255
-0.31933 0.09939 0.04434 0 0 255
-0.21138 -0.00497 0.01693 0 0 255
-0.06184 -0.02524 -0.06654 0 0 255
-0.27951 -0.0058 0.00817 0 0 255
0.36453 -0.06072 0.00698 0 0 255
-0.32166 0.09929 -0.01444 0 0 255
-0.10157 -0.07219 -0.00063 0 0 255
-0.00063 -0.05749 0.13815 0 0 255
-0.10143 -0.01945 0.02392 0 0 255
-0.22666 0.01147 0.00487 0 0 255
-0.07803 -0.00206 -0.05192 0 0 255
-0.30968 0.10691 0.00054 0 0 255
0.01142 -0.02843 0.03462 0 0 255
0.23276 -0.06433 0.02628 0 0 255
-0.00479 -0.05019 -0.05658 0 0 255
0.00608 -0.06287 -0.03358 0 0 255
-0.12078 -0.02427 -0.06872 0 0 255
0.33962 -0.07124 0.00696 0 0 255
-0.10953 -0.0407 -0.03382 0 0 255
-0.11778 -0.03894 -0.03294 0 0 255
0.07433 -0.06084 0.06046 0 0 255
-0.01311 -0.05188 0.19885 0 0 255
-0.14202 -0.01845 -0.06682 0 0 255
0.02968 -0.07235 0.0521 0 0 255
0.00362 -0.04953 0.051 0 0 255
-0.19703 -0.02668 0.02289 0 0 255
0.03108 -0.05667 -0.04975 0 0 255
0.102 -0.06246 0.03289 0 0 255
-0.14127 -0.00124 0.00364 0 0 255
-0.02648 -0.04258 0.26943 0 0 255
0.28066 -0.00577 -0.02192 0 0 255
0.02738 -0.0505 -0.04196 0 0 255
-0.02506 -0.04261 -0.26547 0 0 255
-0.31278 0.05713 0.00157 0 0 255
0.20941 -0.02207 0.0324 0 0 255
-0.236 0.05101 -0.00301 0 0 255
0.07303 -0.05852 0.07722 0 0 255
0.06198 -0.05542 0.11922 0 0 255
-0.27797 0.006 0.00292 0 0 255
-0.1058 -0.0156 -0.03793 0 0 255
-0.32191 0.09529 0.05101 0 0 255
-0.10367 -0.07087 0.00646 0 0 255
-0.1071 -0.07076 0.00052 0 0 255
-0.30133 0.09528 0.02881 0 0 255
-0.16215 -0.01182 0.06031 0 0 255
0.00854 -0.0575 -0.08348 0 0 255
-0.1419 -0.02293 0.02967 0 0 255
-0.11086 -0.00126 0.02138 0 0 255
-0.12253 1e-05 0.01971 0 0 255
-0.08189 -0.01503 -0.03041 0 0 255
-0.29016 0.08262 -0.00266 0 0 255
0.00495 -0.05009 -0.21172 0 0 255
-0.00749 -0.04686 -0.2856 0 0 255
0.02744 -0.04993 -0.21015 0 0 255
0.26602 -0.10234 -0.00583 0 0 255
-0.06193 -0.05798 0.02958 0 0 255
-0.03132 -0.04206 0.20328 0 0 255
-0.01333 -0.05576 -0.09428 0 0 255
-0.01859 -0.05176 -0.16282 0 0 255
0.01975 -0.06822 -0.00132 0 0 255
0.09751 -0.0689 -0.02465 0 0 255
0.06617 -0.01803 -0.03152 0 0 255
0.2303 -0.05606 -0.03196 0 0 255
-0.34256 0.09563 -0.04153 0 0 255
-0.35048 0.09618 -0.07151 0 0 255
-0.15575 -0.03694 -0.028 0 0 255
-0.00966 -0.05059 -0.06603 0 0 255
0.04603 -0.07657 -0.00801 0 0 255
-0.31983 0.09934 -0.0531 0 0 255
0.0445 -0.04555 0.11198 0 0 255
0.04558 -0.04623 0.09132 0 0 255
0.03564 -0.04526 0.12255 0 0 255
0.0243 -0.04333 0.18245 0 0 255
-0.07341 -0.00364 0.06136 0 0 255
-0.10886 -0.02782 0.0335 0 0 255
-0.19626 -0.04407 0.0122 0 0 255
0.24561 -0.02048 -0.03187 0 0 255
-0.12011 -0.02992 -0.04254 0 0 255
0.0528 0.00877 0.00187 0 0 255
0.0444 0.00856 0.00331 0 0 255
0.20479 0.00665 0.00747 0 0 255
-0.00209 0.00926 0.00131 0 0 255
0.2084 0.00707 0.00512 0 0 255
0.02976 0.00902 0.0014 0 0 255
0.25587 -0.07523 0.00655 0 0 255
-0.12294 -0.00518 -0.06193 0 0 255
-0.15636 -0.05165 -0.01779 0 0 255
-0.09304 -0.00842 -0.04106 0 0 255
-0.00645 -0.04444 -0.30548 0 0 255
0.05768 -0.04755 -0.04537 0 0 255
0.02233 -0.07461 -0.05342 0 0 255
0.02156 -0.05982 0.03168 0 0 255
-0.18023 -0.01101 -0.02316 0 0 255
0.04476 -0.0585 0.08227 0 0 255
0.04234 -0.05684 0.10815 0 0 255
0.03278 -0.056 0.11965 0 0 255
0.03083 -0.05356 0.15818 0 0 255
0.03423 -0.05544 0.12891 0 0 255
0.06499 -0.0538 -0.12562 0 0 255
-0.03207 -0.06891 0.01847 0 0 255
-0.01848 -0.06128 0.03612 0 0 255
-0.08412 -0.02629 -0.0342 0 0 255
0.03331 -0.05054 -0.01874 0 0 255
0.03769 -0.05375 0.15557 0 0 255
0.02032 -0.06364 -0.02698 0 0 255
0.2769 0.00314 -0.01211 0 0 255
-0.02147 -0.05307 -0.13188 0 0 255
-0.02116 -0.05393 -0.11473 0 0 255
-0.07602 -0.03419 0.05947 0 0 255
-0.12354 -0.00137 0.00451 0 0 255
-0.28551 0.09626 -0.00842 0 0 255
0.16606 -0.07118 -0.01673 0 0 255
0.03419 -0.05403 0.15134 0 0 255
0.04832 -0.05888 0.07683 0 0 255
0.03185 -0.0549 0.137 0 0 255
0.02784 -0.05371 0.15526 0 0 255
0.02721 -0.05335 0.16091 0 0 255
0.04273 -0.05637 0.11574 0 0 255
-0.35924 0.09943 -0.10759 0 0 255
0.18596 -0.07117 0.01708 0 0 255
0.22341 -0.07126 0.01749 0 0 255
0.16892 -0.07143 0.01617 0 0 255
0.22267 -0.07339 0.01233 0 0 255
0.35246 -0.05304 -0.0168 0 0 255
-0.07485 -0.01492 0.0245 0 0 255
-0.27224 -0.02447 -0.00548 0 0 255
-0.26948 0.01082 0.00331 0 0 255
0.13559 -0.02267 -0.03272 0 0 255
-0.29547 0.09605 -0.02628 0 0 255
0.0405 -0.07624 0.00257 0 0 255
-0.01944 -0.0559 0.07799 0 0 255
-0.01579 -0.05574 0.08949 0 0 255
0.27553 -0.09713 -0.00326 0 0 255
-0.36607 0.09721 0.09684 0 0 255
-0.34726 0.09585 -0.02754 0 0 255
-0.25513 0.03314 -0.00324 0 0 255
0.35384 -0.0386 0.0096 0 0 255
0.03943 -0.07221 0.00732 0 0 255
-0.10387 -0.01002 0.04004 0 0 255
0.03415 -0.10343 -0.05182 0 0 255
-0.10103 -0.01432 0.06982 0 0 255
-0.12032 -0.00326 -0.04986 0 0 255
0.23501 -0.07548 -0.0036 0 0 255
0.21919 -0.07524 -0.00457 0 0 255
0.03625 -0.05709 -0.10296 0 0 255
0.03639 -0.05595 -0.12116 0 0 255
0.03907 -0.05494 -0.13792 0 0 255
0.03157 -0.05543 -0.12855 0 0 255
-0.06623 -0.01601 0.03729 0 0 255
0.06124 -0.04974 -0.13402 0 0 255
-0.02147 -0.05049 0.18325 0 0 255
-0.14781 -0.03145 -0.0299 0 0 255
-0.12975 -0.01751 -0.06875 0 0 255
0.28736 -0.01039 0.02455 0 0 255
0.02384 -0.06834 0.02408 0 0 255
-0.34588 0.0989 -0.04005 0 0 255
-0.02442 -0.05157 -0.15619 0 0 255
-0.10784 -0.03454 -0.04976 0 0 255
-0.08441 -0.01984 -0.03743 0 0 255
-0.19884 0.03523 -0.00031 0 0 255
-0.00057 -0.04901 0.07814 0 0 255
-0.03955 -0.05382 -0.13833 0 0 255
0.03203 -0.01113 0.02825 0 0 255
-0.02276 -0.0542 -0.10373 0 0 255
-0.15076 -0.00941 -0.02452 0 0 255
-0.10221 -0.01297 -0.02932 0 0 255
-0.14151 -0.02266 -0.06615 0 0 255
-0.18625 -0.04952 0.00583 0 0 255
0.11946 -0.06283 -0.02683 0 0 255
-0.03938 -0.04417 0.27901 0 0 255
0.04614 -0.04642 -0.16652 0 0 255
-0.13198 -0.01574 0.02526 0 0 255
0.2221 -0.0636 -0.02679 0 0 255
0.25702 -0.08083 0.00712 0 0 255
0.06029 -0.07304 -0.02215 0 0 255
0.08969 -0.07104 0.02396 0 0 255
-0.11657 -0.01872 0.03841 0 0 255
0.03558 -0.04627 0.2012 0 0 255
0.10096 0.00471 -0.0132 0 0 255
0.07397 0.0054 -0.01236 0 0 255
-0.06491 0.00754 -0.0104 0 0 255
0.14594 0.00561 -0.01117 0 0 255
-0.07278 0.00585 -0.01332 0 0 255
-0.06078 0.00634 -0.01235 0 0 255
-0.04891 -0.031 -0.03511 0 0 255
0.189 -0.03833 -0.03586 0 0 255
-0.00202 -0.03156 -0.03514 0 0 255
0.0514 -0.0335 -0.03535 0 0 255
-0.04536 -0.03622 -0.0358 0 0 255
-0.00716 -0.03249 -0.03527 0 0 255
-0.20073 0.00822 -0.0054 0 0 255
0.02901 -0.05051 0.02207 0 0 255
0.16916 -0.0163 0.03049 0 0 255
-0.06388 -0.01667 -0.0404 0 0 255
-0.0729 -0.05679 0.03043 0 0 255
0.05608 -0.04623 -0.09004 0 0 255
0.03801 -0.04439 -0.14965 0 0 255
-0.21145 0.00124 0.01341 0 0 255
0.18268 -0.01974 -0.03178 0 0 255
0.01889 0.00262 0.01766 0 0 255
0.07225 0.00482 0.01335 0 0 255
-0.0845 0.00647 0.01242 0 0 255
-0.03585 0.006 0.01264 0 0 255
0.07833 0.00315 0.01608 0 0 255
-0.06165 0.0046 0.01528 0 0 255
0.24862 0.00087 0.0179 0 0 255
0.22312 -0.02213 0.03239 0 0 255
0.0006 -0.04918 0.20479 0 0 255
0.22305 -0.06943 -0.02011 0 0 255
0.03026 -0.06039 0.06114 0 0 255
0.0065 -0.01211 -0.02887 0 0 255
-0.26816 -0.02176 0.00853 0 0 255
-0.02014 -0.05891 -0.05366 0 0 255
0.01567 -0.0952 -0.04146 0 0 255
0.23176 -0.06512 -0.02567 0 0 255
-0.07706 -0.02725 0.0682 0 0 255
0.03086 -0.06304 0.02879 0 0 255
-0.19628 0.00575 -0.00554 0 0 255
-0.33064 0.09946 0.07457 0 0 255
-0.22911 -0.02845 0.01549 0 0 255
0.3205 -0.07184 0.01289 0 0 255
-0.07579 -0.00733 0.02663 0 0 255
-0.04562 -0.00984 0.02785 0 0 255
-0.09381 -0.01578 -0.04266 0 0 255
0.16708 -0.02505 0.03334 0 0 255
-0.15353 -0.02425 0.05839 0 0 255
0.0937 -0.07333 0.02033 0 0 255
-0.19348 -0.00037 -0.01633 0 0 255
-0.32627 0.09243 0.0047 0 0 255
-0.14421 -0.00371 0.02187 0 0 255
0.02286 -0.05665 0.05075 0 0 255
0.06013 -0.05431 0.1305 0 0 255
-0.32597 0.09521 -0.04457 0 0 255
-0.32674 0.0953 -0.04935 0 0 255
-0.19626 -0.00881 0.02044 0 0 255
0.07433 -0.01573 0.03054 0 0 255
-0.18509 -0.00238 0.01841 0 0 255
-0.20925 0.03426 -0.00284 0 0 255
-0.1371 0.01403 0.00352 0 0 255
0.10044 -0.0214 -0.03242 0 0 255
0.31692 -0.06496 -0.02202 0 0 255
0.01342 -0.04777 0.07963 0 0 255
-0.01083 -0.05115 0.05051 0 0 255
-0.14469 -0.01328 0.04297 0 0 255
-0.21831 0.01691 0.00472 0 0 255
-0.35828 0.09663 -0.07314 0 0 255
-0.02492 -0.05593 -0.20398 0 0 255
-0.18144 -0.05146 0.00053 0 0 255
0.00385 -0.04747 0.10075 0 0 255
-0.01153 -0.04633 0.29376 0 0 255
-0.08865 -0.00563 -0.0641 0 0 255
-0.15348 -0.01683 0.05462 0 0 255
-0.0421 -0.04448 -0.29804 0 0 255
-0.05685 -0.06991 0.01603 0 0 255
0.27611 -0.09563 0.00169 0 0 255
0.02528 -0.08537 -0.04146 0 0 255
-0.2253 0.04227 0.00314 0 0 255
-0.1322 -0.03153 0.03175 0 0 255
-0.33863 0.099 0.02767 0 0 255
-0.24955 0.07748 0.00212 0 0 255
-0.0094 -0.05243 0.16035 0 0 255
-0.02857 0.00797 0.00906 0 0 255
-0.0195 0.00866 0.00509 0 0 255
0.07509 0.00728 0.00893 0 0 255
0.11202 0.00729 0.00747 0 0 255
0.04974 0.00845 0.00368 0 0 255
0.1186 0.00696 0.00899 0 0 255
0.0324 -0.1037 0.04458 0 0 255
-0.14255 -0.03312 0.03038 0 0 255
-0.17027 -0.02914 0.02719 0 0 255
-0.19058 0.00929 0.00081 0 0 255
-0.02538 -0.04429 -0.22412 0 0 255
0.02517 -0.07415 0.0069 0 0 255
0.0137 -0.05066 -0.20102 0 0 255
0.01568 -0.05224 -0.17627 0 0 255
0.26987 -0.09328 -0.00566 0 0 255
-0.35827 0.09904 -0.08301 0 0 255
-0.13739 0.0085 0.00495 0 0 255
-0.10542 -0.06117 -0.02452 0 0 255
0.03697 -0.03261 -0.03525 0 0 255
0.12585 -0.01413 0.0295 0 0 255
0.01159 -0.04976 0.2215 0 0 255
0.01475 -0.05042 0.20663 0 0 255
0.01684 -0.05031 0.20985 0 0 255
-0.13728 -0.02662 0.0426 0 0 255
-0.3355 0.09951 -0.0852 0 0 255
-0.30833 0.09913 -0.03107 0 0 255
0.0907 -0.0499 0.03753 0 0 255
-0.04606 -0.04724 -0.20491 0 0 255
-0.14753 -0.01416 -0.0267 0 0 255
0.06592 -0.04709 0.06244 0 0 255
-0.02288 -0.04317 -0.24391 0 0 255
0.08576 -0.05293 -0.07096 0 0 255
-0.1106 -0.03091 -0.04319 0 0 255
-0.29967 0.09857 -0.02413 0 0 255
-0.00211 -0.0418 -0.28854 0 0 255
0.05394 -0.05758 0.09836 0 0 255
0.06115 -0.059 0.07693 0 0 255
-0.37049 0.09834 -0.10535 0 0 255
0.16401 -0.05123 -0.03377 0 0 255
-0.30787 0.06407 -0.00203 0 0 255
0.00294 -0.0625 0.0356 0 0 255
0.02467 -0.07531 -0.00787 0 0 255
-0.17215 0.00043 -0.00589 0 0 255
-0.00322 -0.04918 0.23043 0 0 255
-0.00421 -0.0495 0.22124 0 0 255
0.01937 -0.09297 -0.04557 0 0 255
-0.05573 -0.02639 -0.03417 0 0 255
-0.34201 0.09589 -0.0711 0 0 255
-0.32958 0.09506 -0.02819 0 0 255
0.02441 -0.08862 0.0553 0 0 255
-0.22576 0.00023 0.01304 0 0 255
-0.13643 -0.01946 -0.03985 0 0 255
-0.28533 0.03466 0.00246 0 0 255
0.35854 -0.04555 -0.01215 0 0 255
0.03158 -0.05133 -0.18968 0 0 255
-0.05958 -0.02927 -0.06144 0 0 255
-0.01235 -0.0471 0.27827 0 0 255
-0.00577 -0.04718 0.2783 0 0 255
-0.01547 -0.06731 0.02071 0 0 255
-0.20171 -0.04555 -0.00547 0 0 255
-0.14391 -0.0482 0.02474 0 0 255
-0.15697 -0.04591 0.02317 0 0 255
-0.02286 -0.06229 0.02706 0 0 255
-0.07139 -0.0328 0.06069 0 0 255
0.06623 -0.06055 -0.06409 0 0 255
0.32233 -0.0383 -0.0265 0 0 255
-0.30771 0.09933 -0.01196 0 0 255
-0.31719 0.0994 -0.03629 0 0 255
-0.32657 0.09942 -0.04544 0 0 255
0.27385 -0.07046 -0.00639 0 0 255
0.02444 -0.1028 -0.03793 0 0 255
0.06488 -0.04794 0.11052 0 0 255
0.00602 -0.05366 -0.13215 0 0 255
0.01039 -0.04262 -0.21077 0 0 255
0.31579 -0.02245 -0.0226 0 0 255
0.05997 -0.04652 0.08392 0 0 255
0.05709 -0.04631 0.08793 0 0 255
-0.11467 -0.00453 -0.04599 0 0 255
0.25938 -0.04154 -0.03584 0 0 255
0.00355 -0.05618 0.1033 0 0 255
-0.27798 -0.00023 0.00729 0 0 255
-0.00099 -0.05408 0.13717 0 0 255
-0.15857 -0.02088 0.06253 0 0 255
-0.33811 0.09821 -0.10973 0 0 255
-0.16345 -0.02711 -0.02817 0 0 255
0.33023 -0.03268 -0.02118 0 0 255
-0.05581 0.00868 -0.00632 0 0 255
0.08606 0.008 -0.00469 0 0 255
-0.03868 0.00893 -0.00441 0 0 255
-0.04116 0.00837 -0.00742 0 0 255
0.12735 0.00805 -0.00294 0 0 255
0.0046 0.00842 -0.00546 0 0 255
-0.09435 -0.03037 -0.04227 0 0 255
-0.02367 -0.05304 0.13923 0 0 255
0.01711 -0.06306 -0.03565 0 0 255
0.27799 -0.05038 -0.0341 0 0 255
-0.3522 0.097 0.01357 0 0 255
0.16059 0.00693 -0.00759 0 0 255
0.2589 0.00687 -0.00429 0 0 255
0.26193 0.00632 -0.00711 0 0 255
0.13635 0.00761 -0.00493 0 0 255
-0.02758 -0.04455 0.22496 0 0 255
0.28023 -0.02925 0.03334 0 0 255
-0.13112 -0.01527 0.01407 0 0 255
-0.13495 -0.06283 -0.00585 0 0 255
-0.34673 0.09678 -0.11048 0 0 255
-0.13758 -0.01522 0.06761 0 0 255
0.30713 -0.07512 0.00579 0 0 255
-0.06882 -0.01548 -0.03047 0 0 255
0.36105 -0.05057 0.01217 0 0 255
-0.22106 -0.04115 -0.00128 0 0 255
0.3321 -0.02548 0.01478 0 0 255
-0.21029 0.01242 -0.00512 0 0 255
-0.06112 -0.01211 -0.0668 0 0 255
0.26103 -0.0166 -0.03031 0 0 255
0.06862 -0.04726 -0.074 0 0 255
0.05733 -0.05835 -0.08679 0 0 255
0.04573 -0.05536 -0.13127 0 0 255
0.00112 -0.02134 -0.03261 0 0 255
-0.03292 -0.04763 -0.23414 0 0 255
0.03152 -0.04517 -0.20865 0 0 255
0.03199 -0.0482 0.21449 0 0 255
-0.16656 0.00733 -0.00869 0 0 255
-0.12092 -0.00825 0.02569 0 0 255
-0.11449 -0.01133 0.02771 0 0 255
0.07064 -0.06249 0.0485 0 0 255
0.0124 -0.02432 0.03344 0 0 255
-0.03291 -0.06669 0.02136 0 0 255
0.02177 -0.02934 0.03483 0 0 255
-0.12653 -0.02539 0.04033 0 0 255
-0.09494 -0.01495 0.02766 0 0 255
0.02469 -0.06475 0.00132 0 0 255
0.00299 -0.05003 0.03783 0 0 255
0.3603 -0.06299 0.00733 0 0 255
0.27056 -0.03471 -0.03531 0 0 255
0.03688 -0.07459 0.01245 0 0 255
0.06002 -0.06222 0.05003 0 0 255
0.05885 -0.06444 0.03139 0 0 255
0.06101 -0.06375 0.03731 0 0 255
0.01581 -0.06731 0.02365 0 0 255
-0.02881 -0.06986 0.01661 0 0 255
-0.30454 0.1066 -0.00083 0 0 255
-0.00502 -0.07011 0.01683 0 0 255
-0.12221 -0.00641 0.04423 0 0 255
-0.14447 -0.01856 0.01703 0 0 255
-0.27418 0.02658 -0.00291 0 0 255
-0.11626 -0.02999 -0.06566 0 0 255
0.08169 -0.07444 -0.02021 0 0 255
-0.18882 0.00692 0.00557 0 0 255
-0.28905 -0.01849 -0.00507 0 0 255
0.24677 -0.05328 0.03316 0 0 255
0.01269 -0.05753 -0.08581 0 0 255
-0.04163 -0.04448 0.29014 0 0 255
-0.10471 0.00736 -0.01074 0 0 255
-0.09962 0.00663 -0.01215 0 0 255
0.03469 -0.10175 0.05499 0 0 255
0.0392 -0.06073 -0.06009 0 0 255
-0.1053 -0.03222 -0.04482 0 0 255
-0.25747 0.00083 0.00409 0 0 255
-0.11563 -0.01367 -0.03854 0 0 255
0.12347 -0.03763 0.03583 0 0 255
-0.02706 -0.03803 0.03602 0 0 255
-0.07164 -0.03471 0.03562 0 0 255
0.04698 -0.03815 0.03597 0 0 255
-0.075 -0.03063 0.03509 0 0 255
0.08947 -0.03638 0.03569 0 0 255
-0.16751 -0.02321 -0.02726 0 0 255
0.02425 -0.05821 -0.08016 0 0 255
0.02137 -0.05504 -0.13212 0 0 255
0.02203 -0.05712 -0.09753 0 0 255
0.01846 -0.0563 -0.10992 0 0 255
0.0192 -0.05412 -0.14664 0 0 255
0.08512 -0.05291 0.07245 0 0 255
0.08183 -0.04909 -0.05822 0 0 255
-0.12029 0.00929 0.00257 0 0 255
-0.11607 -0.01011 0.06767 0 0 255
-0.2071 -0.00078 0.00075 0 0 255
-0.1359 0.00952 -0.00166 0 0 255
-0.02292 -0.0422 0.27286 0 0 255
-0.02906 -0.04497 -0.3068 0 0 255
0.1812 -0.01902 0.03157 0 0 255
0.25241 0.00341 -0.01361 0 0 255
0.24338 0.004 -0.01273 0 0 255
0.26095 0.00391 -0.01267 0 0 255
0.16087 0.00425 -0.01328 0 0 255
-0.03776 0.00326 -0.01724 0 0 255
0.27004 0.00153 -0.01655 0 0 255
0.02451 0.00281 -0.01727 0 0 255
-0.24622 0.05312 0.00311 0 0 255
-0.143 -0.00682 -0.05886 0 0 255
-0.14788 0.0159 -0.00382 0 0 255
0.04471 -0.05055 0.17927 0 0 255
-0.02207 -0.05359 -0.11979 0 0 255
0.07162 -0.01305 -0.02912 0 0 255
-0.02277 -0.05004 -0.19023 0 0 255
0.09422 -0.06258 0.03902 0 0 255
-0.15369 -0.01717 0.01635 0 0 255
0.31644 -0.03946 0.02847 0 0 255
-0.24339 0.00075 -0.01094 0 0 255
-0.25646 0.01461 0.00389 0 0 255
0.07615 -0.02515 0.03355 0 0 255
0.22341 -0.01171 -0.02784 0 0 255
0.14304 -0.01276 -0.0287 0 0 255
0.21088 -0.01011 -0.02704 0 0 255
0.35494 -0.04608 0.01456 0 0 255
-0.26216 0.07694 -0.00286 0 0 255
-0.35515 0.09931 0.08947 0 0 255
0.02042 -0.06696 0.02418 0 0 255
0.00882 -0.02474 0.03357 0 0 255
0.26505 -0.09509 0.00337 0 0 255
-0.33882 0.09591 0.07711 0 0 255
-0.02987 -0.04175 -0.20307 0 0 255
-0.09085 -0.01933 0.0339 0 0 255
-0.34554 0.09575 0.03882 0 0 255
-0.02039 -0.04324 -0.23627 0 0 255
-0.1312 -0.00749 -0.06368 0 0 255
-0.2834 0.09243 0.00198 0 0 255
0.27508 0.00562 0.00737 0 0 255
-0.33899 0.09944 -0.10111 0 0 255
0.01054 -0.04923 0.04455 0 0 255
-0.32131 0.07034 -0.00149 0 0 255
0.12356 -0.06857 0.02033 0 0 255
-0.00819 -0.07365 0.00458 0 0 255
-0.00398 -0.0735 0.00594 0 0 255
-0.15279 -0.02746 0.05499 0 0 255
-0.31316 0.07362 -0.00202 0 0 255
-0.06158 -0.07079 0.01383 0 0 255
-0.04481 -0.0709 0.01384 0 0 255
0.00883 -0.0481 -0.25599 0 0 255
-0.08739 -0.0538 0.03198 0 0 255
-0.083 -0.05114 0.0331 0 0 255
-0.02685 -0.04663 0.18774 0 0 255
-0.02791 -0.04617 0.19815 0 0 255
-0.33866 0.09533 0.02183 0 0 255
0.06581 -0.01623 0.03084 0 0 255
0.23179 -0.0141 0.02909 0 0 255
0.07332 -0.01245 0.0288 0 0 255
0.22427 -0.01325 0.02866 0 0 255
0.06915 -0.04959 0.10822 0 0 255
-0.13125 0.01505 -0.00057 0 0 255
-0.12552 -0.00593 -0.04535 0 0 255
-0.24806 0.04509 -0.00322 0 0 255
0.0248 -0.04301 -0.20464 0 0 255
0.03956 -0.054 0.01431 0 0 255
0.03958 -0.05146 0.01147 0 0 255
0.26873 -0.10677 -0.00402 0 0 255
-0.19543 -0.04496 -0.01116 0 0 255
-0.26281 0.05732 -0.003 0 0 255
-0.16215 -0.05178 -0.01544 0 0 255
-0.10074 -0.00674 0.06523 0 0 255
-0.36762 0.09892 -0.1074 0 0 255
-0.16295 -0.00109 0.00038 0 0 255
-0.00679 -0.05421 0.2006 0 0 255
-0.11403 -0.03161 0.06372 0 0 255
0.02932 -0.04663 -0.22067 0 0 255
0.02167 -0.08989 0.05182 0 0 255
-0.01966 -0.05345 0.12816 0 0 255
-0.02078 -0.05385 0.1172 0 0 255
-0.1548 -0.01464 -0.04652 0 0 255
-0.02553 -0.04486 0.2116 0 0 255
-0.01383 -0.04167 -0.30933 0 0 255
-0.3179 0.06362 -0.00145 0 0 255
-0.01312 -0.05676 -0.07571 0 0 255
-0.21021 0.00782 0.00613 0 0 255
0.03431 -0.09417 0.04529 0 0 255
-0.04467 -0.05452 -0.20442 0 0 255
0.01304 -0.06752 0.01024 0 0 255
-0.00742 -0.04164 -0.2745 0 0 255
-0.07551 -0.02203 0.07017 0 0 255
-0.24491 -0.00052 0.00297 0 0 255
-0.23918 -0.02648 -0.01393 0 0 255
0.01499 -0.06131 0.04976 0 0 255
-0.01226 -0.04373 0.20328 0 0 255
-0.01737 -0.04326 0.22866 0 0 255
0.18045 -0.07414 0.00982 0 0 255
-0.13808 -0.01589 0.02199 0 0 255
0.06576 -0.07658 -0.01341 0 0 255
-0.17123 0.00317 0.01467 0 0 255
-0.12334 0.00301 0.01696 0 0 255
0.06262 -0.05953 0.07239 0 0 255
-0.2767 -0.01835 0.00778 0 0 255
0.01322 -0.0547 0.1345 0 0 255
0.01286 -0.05388 0.14804 0 0 255
0.01634 -0.05678 0.10086 0 0 255
0.02491 -0.05526 0.12992 0 0 255
0.01741 -0.0534 0.15802 0 0 255
0.03644 -0.076 0.00908 0 0 255
-0.14937 0.00829 0.00758 0 0 255
-0.10013 -0.00305 -0.05895 0 0 255
-0.1565 -0.01756 0.04572 0 0 255
0.27916 0.00166 0.01371 0 0 255
-0.02669 -0.04421 -0.23013 0 0 255
-0.09412 -0.02328 -0.06978 0 0 255
-0.13179 -0.06211 0.0112 0 0 255
-0.10779 -0.06755 -0.01361 0 0 255
-0.11094 -0.06771 -0.01118 0 0 255
0.12993 -0.02351 0.03297 0 0 255
-0.11924 -0.00905 0.04125 0 0 255
-0.02792 -0.0737 0.00319 0 0 255
0.0183 -0.0318 0.03516 0 0 255
-0.03704 -0.04982 0.13778 0 0 255
-0.26279 0.04358 0.00308 0 0 255
-0.09157 -0.07251 0.0088 0 0 255
-0.03492 -0.07312 0.00717 0 0 255
-0.12582 -0.03079 -0.04477 0 0 255
0.03422 -0.07469 -0.00754 0 0 255
-0.11669 -0.02627 0.03255 0 0 255
-0.07213 -0.02806 0.04105 0 0 255
0.00638 -0.04345 0.27756 0 0 255
0.28656 -0.07577 -0.00409 0 0 255
0.04587 -0.04771 0.04275 0 0 255
0.0528 -0.04733 0.05416 0 0 255
-0.01588 -0.05139 -0.13146 0 0 255
-0.00522 -0.06552 0.02471 0 0 255
-0.26791 0.01501 0.00335 0 0 255
-0.32555 0.09662 -0.0852 0 0 255
-0.19662 -0.0082 -0.02026 0 0 255
0.01782 -0.0876 -0.04886 0 0 255
-0.23138 0.01474 0.00464 0 0 255
0.00351 -0.04198 -0.25061 0 0 255
0.0045 -0.04218 -0.23832 0 0 255
0.00775 -0.0423 -0.23044 0 0 255
-0.3417 0.09953 0.0845 0 0 255
-0.32311 0.09468 0.01082 0 0 255
-0.026 -0.02042 0.03239 0 0 255
-0.16182 -0.054 0.01135 0 0 255
0.01466 -0.05041 0.01556 0 0 255
-0.33316 0.10271 -0.00121 0 0 255
0.0124 -0.04995 -0.21738 0 0 255
0.00703 -0.04938 -0.22932 0 0 255
0.00104 -0.04858 -0.2468 0 0 255
-0.1396 -0.0306 -0.05957 0 0 255
0.05145 -0.05538 0.12872 0 0 255
0.31171 -0.01954 -0.02263 0 0 255
-0.07104 -0.00198 -0.05255 0 0 255
-0.04796 -0.00134 0.02183 0 0 255
-0.07243 -0.00402 0.02441 0 0 255
-0.02486 -0.00321 0.02338 0 0 255
0.03605 0.00014 0.01996 0 0 255
-0.02155 -0.00148 0.02179 0 0 255
0.06376 0.00152 0.01854 0 0 255
0.23095 0.00085 0.01808 0 0 255
-0.29809 0.01844 -0.00065 0 0 255
-0.04221 -0.05147 0.20541 0 0 255
-0.10348 -0.00958 -0.02744 0 0 255
0.36134 -0.05778 0.01104 0 0 255
-0.12606 -0.01204 -0.04018 0 0 255
0.19271 -0.06613 -0.02414 0 0 255
-0.01726 -0.05195 0.05792 0 0 255
-0.26709 0.06569 0.00294 0 0 255
-0.2225 0.00944 -0.0001 0 0 255
-0.01641 -0.04242 -0.19992 0 0 255
0.27833 -0.02878 -0.03344 0 0 255
-0.23303 -0.01864 0.01694 0 0 255
-0.15805 0.01054 -0.00554 0 0 255
-0.11855 -0.00622 -0.02475 0 0 255
-0.14518 -0.00328 -0.02159 0 0 255
0.0212 -0.04861 -0.04172 0 0 255
0.01948 -0.04789 -0.06492 0 0 255
-0.35376 0.09634 -0.07438 0 0 255
-0.014 -0.04768 0.26238 0 0 255
-0.03189 -0.04205 -0.30079 0 0 255
0.0246 -0.04945 0.21979 0 0 255
-0.02287 -0.05214 -0.14798 0 0 255
-0.30839 0.09866 0.04388 0 0 255
-0.28264 0.0319 0.00252 0 0 255
0.09866 -0.02258 0.03276 0 0 255
0.04299 -0.0615 0.05421 0 0 255
0.05217 -0.06075 0.06143 0 0 255
0.0516 -0.05339 0.14945 0 0 255
0.02648 -0.04686 0.03492 0 0 255
-0.06526 -0.04203 0.03547 0 0 255
-0.01275 -0.06137 0.0383 0 0 255
-0.04267 -0.05965 -0.13516 0 0 255
-0.10402 -0.03376 0.06012 0 0 255
0.16886 -0.00929 -0.02676 0 0 255
-0.35791 0.0966 0.08401 0 0 255
0.11215 -0.01712 -0.03114 0 0 255
-0.07844 -0.06556 0.02241 0 0 255
-0.08095 -0.06384 0.02463 0 0 255
0.27713 -0.01672 0.02956 0 0 255
-0.07661 -0.05588 -0.03111 0 0 255
-0.22633 0.02766 -0.00378 0 0 255
0.00856 -0.06925 0.02172 0 0 255
0.25254 -0.00257 -0.02105 0 0 255
0.19643 -0.00133 -0.02028 0 0 255
-0.01026 0.00189 -0.01867 0 0 255
0.22581 -0.00365 -0.02219 0 0 255
-0.0003 -0.04751 0.10641 0 0 255
-0.12173 -0.01891 0.02843 0 0 255
-0.21059 -0.00913 -0.01861 0 0 255
0.33085 -0.05334 0.02516 0 0 255
-0.09349 -0.01671 -0.01407 0 0 255
0.05076 -0.06267 -0.04529 0 0 255
0.05395 -0.06022 -0.06603 0 0 255
0.04533 -0.06325 -0.03989 0 0 255
0.00701 -0.05457 0.134 0 0 255
-0.01924 -0.01105 -0.0284 0 0 255
0.31645 -0.05009 -0.02878 0 0 255
-0.28507 0.09948 0.00415 0 0 255
-0.05236 -0.05437 -0.13534 0 0 255
-0.00421 -0.05127 -0.18448 0 0 255
-0.22687 0.01515 -0.00469 0 0 255
0.30206 -0.04997 -0.0319 0 0 255
0.19954 -0.05592 0.03193 0 0 255
0.27325 -0.07781 -0.00728 0 0 255
-0.2053 0.00565 0.00971 0 0 255
-0.01451 -0.05798 0.13856 0 0 255
0.21507 -0.07032 -0.01888 0 0 255
-0.24758 -0.03363 0.00367 0 0 255
-0.0954 -0.01951 0.02527 0 0 255
0.12579 -0.06453 0.02556 0 0 255
0.02609 -0.09953 -0.04887 0 0 255
-0.18694 0.00621 -0.00974 0 0 255
0.01646 -0.0487 -0.23957 0 0 255
-0.0409 -0.06096 -0.0274 0 0 255
-0.33443 0.09944 -0.08889 0 0 255
0.14878 -0.06941 0.01946 0 0 255
-0.06844 -0.03029 -0.04405 0 0 255
0.09397 -0.07613 -0.01139 0 0 255
0.03952 -0.06002 0.01448 0 0 255
0.00282 -0.05867 -0.13703 0 0 255
-0.30102 0.0036 0.00417 0 0 255
-0.03424 -0.05776 -0.03854 0 0 255
0.02718 -0.07092 -0.05189 0 0 255
0.03095 -0.06983 0.02227 0 0 255
-0.12398 -0.01891 -0.02665 0 0 255
0.04404 -0.07645 0.00563 0 0 255
-0.09813 -0.03473 -0.05068 0 0 255
0.1092 -0.00343 0.02273 0 0 255
0.04547 -0.00508 0.02463 0 0 255
0.15742 -0.00576 0.02454 0 0 255
0.02217 -0.00515 0.02484 0 0 255
0.19264 -0.00207 0.02097 0 0 255
0.19519 -0.00564 0.02418 0 0 255
0.02015 -0.0726 -0.01455 0 0 255
0.02977 -0.0485 0.03555 0 0 255
0.02446 -0.04858 0.03906 0 0 255
-0.34705 0.0994 0.0773 0 0 255
0.17396 -0.01637 0.03051 0 0 255
-0.00037 -0.04178 0.28051 0 0 255
-0.24843 0.03683 -0.00333 0 0 255
-0.01325 -0.05798 0.06603 0 0 255
-0.13566 -0.02955 -0.04516 0 0 255
-0.03072 -0.05675 0.04939 0 0 255
-0.13023 -0.06391 -0.00692 0 0 255
-0.22711 -0.01154 -0.017 0 0 255
0.13945 -0.06607 -0.02374 0 0 255
-0.08766 -0.01841 0.03732 0 0 255
0.03207 -0.04837 -0.03675 0 0 255
-0.27131 -0.00034 0.00319 0 0 255
0.0216 -0.0531 -0.04747 0 0 255
0.01773 -0.06716 -0.02494 0 0 255
0.02293 -0.10571 -0.04146 0 0 255
-0.01041 -0.04315 0.21617 0 0 255
-0.02115 -0.04236 0.26405 0 0 255
-0.02261 -0.04656 -0.28592 0 0 255
-0.02 -0.04713 -0.2728 0 0 255
-0.19541 0.00927 -0.00086 0 0 255
-0.1295 -0.00133 -0.00077 0 0 255
-0.14078 0.00834 -0.00769 0 0 255
-0.02926 -0.05771 0.13225 0 0 255
0.26104 -0.06196 0.02825 0 0 255
-0.15265 -0.04477 -0.02514 0 0 255
-0.00626 -0.04402 -0.18752 0 0 255
-0.06039 -0.00714 -0.04544 0 0 255
-0.21532 -0.04058 0.00855 0 0 255
0.21699 -0.06859 -0.02116 0 0 255
0.09101 -0.07493 0.01682 0 0 255
-0.28937 0.09744 -0.01233 0 0 255
0.12293 -0.03342 -0.03527 0 0 255
0.18443 -0.03117 -0.03492 0 0 255
0.1645 -0.03172 -0.03501 0 0 255
0.12632 -0.03192 -0.03507 0 0 255
0.01226 -0.06012 0.05887 0 0 255
0.01303 -0.06985 0.02112 0 0 255
-0.21919 0.03607 -0.0033 0 0 255
-0.30883 0.09353 0.008 0 0 255
-0.02747 -0.02397 0.03342 0 0 255
0.08042 -0.04973 -0.0706 0 0 255
0.04177 -0.04514 -0.16944 0 0 255
0.25782 -0.06006 0.0297 0 0 255
-0.06507 -0.04753 0.03464 0 0 255
0.07176 -0.05627 0.09917 0 0 255
0.03107 -0.05993 -0.03788 0 0 255
-0.0281 -0.05112 -0.14577 0 0 255
0.16013 -0.00947 0.02689 0 0 255
0.00753 -0.06054 0.0538 0 0 255
0.01312 -0.0564 0.01426 0 0 255
0.01307 -0.06403 0.00931 0 0 255
-0.34977 0.09616 -0.00936 0 0 255
-0.0126 -0.0595 0.0538 0 0 255
0.03378 -0.04397 0.16318 0 0 255
0.05031 -0.0471 -0.06277 0 0 255
0.04757 -0.04754 -0.04833 0 0 255
-0.01412 -0.05135 0.05984 0 0 255
0.04959 -0.04616 -0.09256 0 0 255
0.04594 -0.04656 -0.08154 0 0 255
0.05058 -0.04649 -0.08247 0 0 255
0.0265 -0.04331 -0.1827 0 0 255
0.03505 -0.04445 -0.14662 0 0 255
0.31393 -0.07019 0.01663 0 0 255
-0.03661 -0.04526 -0.19912 0 0 255
0.03131 -0.02609 -0.03391 0 0 255
-0.02006 -0.05267 0.06121 0 0 255
-0.28144 0.05843 -0.00275 0 0 255
0.08774 -0.07266 -0.02314 0 0 255
0.037 -0.04692 -0.07392 0 0 255
-0.0092 -0.05249 -0.15942 0 0 255
0.28968 -0.06961 -0.01995 0 0 255
-0.21602 0.0291 0.00366 0 0 255
-0.05947 -0.02463 -0.03367 0 0 255
-0.03841 -0.01984 0.03225 0 0 255
-0.35156 0.09816 -0.03017 0 0 255
-0.08459 -0.00394 -0.06179 0 0 255
-0.09374 -0.01457 0.01415 0 0 255
-0.1446 -0.00821 0.04726 0 0 255
-0.02116 -0.04191 0.27851 0 0 255
-0.01945 -0.04204 0.2709 0 0 255
-0.12377 -0.01837 0.0415 0 0 255
0.31198 -0.0755 -0.00074 0 0 255
-0.22926 0.05943 -0.00149 0 0 255
-0.26025 -0.00496 -0.0108 0 0 255
0.04632 -0.05325 0.15648 0 0 255
-0.18092 -0.03879 -0.02246 0 0 255
0.02122 -0.03543 -0.03563 0 0 255
-0.07401 -0.02985 -0.03498 0 0 255
0.00666 -0.03809 -0.03599 0 0 255
0.08528 -0.03781 -0.03588 0 0 255
0.23518 -0.01188 -0.02789 0 0 255
0.15718 -0.06344 -0.02656 0 0 255
0.09285 -0.05445 0.0582 0 0 255
-0.29869 0.07216 0.00248 0 0 255
-0.13715 0.01414 -0.00344 0 0 255
0.16611 -0.00235 0.02139 0 0 255
0.25266 -0.00531 0.02352 0 0 255
0.10239 -0.00569 0.02482 0 0 255
0.24131 -0.00382 0.02224 0 0 255
0.23371 -0.00682 0.02501 0 0 255
0.22231 -0.00418 0.0227 0 0 255
0.13898 -0.00274 0.02191 0 0 255
0.18143 -0.00566 0.02429 0 0 255
0.33634 -0.02308 -0.00092 0 0 255
-0.35225 0.09929 -0.08056 0 0 255
0.03828 -0.05268 0.16926 0 0 255
-0.34826 0.09858 -0.03326 0 0 255
-0.34311 0.09856 -0.01715 0 0 255
-0.02956 -0.04597 0.29263 0 0 255
-0.00494 -0.0504 0.04908 0 0 255
0.02511 -0.01916 -0.03193 0 0 255
0.16135 -0.06876 -0.02042 0 0 255
0.09402 -0.07612 0.00591 0 0 255
0.03673 -0.04583 0.10516 0 0 255
0.02995 -0.04404 0.16012 0 0 255
0.03593 -0.04463 0.14108 0 0 255
0.03647 -0.04506 0.12812 0 0 255
0.04334 -0.04638 0.08727 0 0 255
-0.07102 -0.00357 -0.06109 0 0 255
-0.01751 -0.04567 0.17625 0 0 255
0.10462 -0.04858 -0.0347 0 0 255
-0.29026 0.09785 0.01149 0 0 255
-0.12434 -0.02266 -0.06894 0 0 255
0.02833 -0.08235 -0.05149 0 0 255
-0.22282 0.00516 0.0051 0 0 255
-0.02783 -0.04153 0.30943 0 0 255
-0.20855 -0.01521 0.02056 0 0 255
-0.0222 -0.05179 -0.09927 0 0 255
0.02603 -0.06648 0.04077 0 0 255
0.06252 -0.01371 0.02951 0 0 255
0.25927 -0.03576 -0.03546 0 0 255
-0.00236 -0.05034 0.04065 0 0 255
-0.10537 -0.03317 -0.06151 0 0 255
-0.05156 -0.05063 -0.20476 0 0 255
0.11703 -0.03157 0.03503 0 0 255
0.10658 -0.03235 0.03515 0 0 255
0.17068 -0.03543 0.03549 0 0 255
0.12603 -0.03338 0.03527 0 0 255
0.04213 -0.07366 -0.01822 0 0 255
-0.06064 -0.01491 -0.04022 0 0 255
0.02784 -0.05204 -0.18158 0 0 255
0.18453 -0.03053 0.03484 0 0 255
-0.21987 0.04017 0.00302 0 0 255
-0.07712 -0.0193 -0.03998 0 0 255
-0.02634 -0.0414 -0.31244 0 0 255
0.0511 -0.04726 -0.15518 0 0 255
0.01359 -0.04654 0.10523 0 0 255
0.00656 -0.04361 0.18282 0 0 255
-0.30551 0.04843 0.00173 0 0 255
-0.01546 -0.05828 0.06225 0 0 255
0.0725 -0.01671 -0.03107 0 0 255
-0.22835 -0.03854 0.00508 0 0 255
-0.31059 0.09244 -0.00227 0 0 255
0.02907 -0.0572 -0.09914 0 0 255
0.01814 -0.05707 -0.09674 0 0 255
0.01458 -0.05293 -0.16465 0 0 255
0.02071 -0.05584 -0.11851 0 0 255
0.02872 -0.05698 -0.10257 0 0 255
0.03109 -0.05553 0.04128 0 0 255
-0.19961 0.00697 0.00545 0 0 255
0.01309 -0.06218 0.01918 0 0 255
-0.17544 -0.01304 -0.0242 0 0 255
0.00621 -0.04862 -0.24731 0 0 255
-0.11273 -0.01999 0.0701 0 0 255
0.03394 -0.09986 -0.04146 0 0 255
-0.27028 0.08221 0.00281 0 0 255
0.21405 -0.0754 0.00307 0 0 255
0.03839 -0.06406 0.03174 0 0 255
0.22859 -0.02938 -0.03446 0 0 255
0.2559 -0.07194 -0.01639 0 0 255
0.26504 -0.07253 -0.01513 0 0 255
0.20181 -0.07255 -0.01402 0 0 255
0.23344 -0.07221 -0.01537 0 0 255
-0.08892 -0.05895 -0.02869 0 0 255
-0.28173 0.00995 0.00253 0 0 255
-0.03407 -0.04509 -0.24137 0 0 255
0.01474 -0.05742 0.0892 0 0 255
-0.19182 -0.042 0.01663 0 0 255
-0.01838 -0.04568 0.13663 0 0 255
-0.02116 -0.04695 -0.27679 0 0 255
-0.01507 -0.047 -0.27928 0 0 255
0.31024 -0.07036 0.01697 0 0 255
0.07437 -0.0666 0.0267 0 0 255
0.00389 -0.04655 -0.28207 0 0 255
-0.12392 -0.0184 -0.04066 0 0 255
-0.088 -0.01988 -0.01457 0 0 255
0.128 -0.0503 -0.03405 0 0 255
0.03832 -0.04431 -0.15612 0 0 255
0.05777 -0.04626 -0.09399 0 0 255
0.00305 -0.05287 -0.20191 0 0 255
-0.05646 -0.01269 0.06356 0 0 255
-0.02036 -0.0443 -0.20863 0 0 255
0.00545 -0.07357 0.00639 0 0 255
0.01319 -0.06454 -0.02675 0 0 255
-0.30402 0.06879 -0.00227 0 0 255
0.23786 -0.01197 0.02793 0 0 255
-0.06409 -0.00336 -0.04976 0 0 255
-0.12204 -0.03164 0.04512 0 0 255
-0.12145 -0.00713 -0.04318 0 0 255
0.33549 -0.03248 -0.01822 0 0 255
-0.1281 0.00613 0.01201 0 0 255
-0.20725 -0.03788 -0.01536 0 0 255
-0.28702 0.03871 -0.00245 0 0 255
0.01077 -0.07413 -0.00307 0 0 255
-0.1274 -0.00487 0.06026 0 0 255
-0.00457 -0.05058 0.1962 0 0 255
0.00959 -0.05353 0.15259 0 0 255
0.00268 -0.05077 0.19602 0 0 255
-0.15041 -0.01694 -0.01964 0 0 255
-0.07862 -0.0198 -0.02107 0 0 255
-0.00441 -0.06203 0.03705 0 0 255
0.21536 -0.07467 0.00867 0 0 255
-0.01845 -0.04541 0.30525 0 0 255
-0.0788 -0.02666 -0.03933 0 0 255
0.13254 -0.07229 0.01346 0 0 255
0.14892 -0.0722 0.01396 0 0 255
-0.30463 0.1007 0.00713 0 0 255
0.00357 -0.053 -0.15897 0 0 255
0.01442 -0.05595 -0.11408 0 0 255
0.00869 -0.05404 -0.14367 0 0 255
-0.0073 -0.04568 0.15494 0 0 255
-0.28551 0.06017 -0.00269 0 0 255
-0.0092 -0.04664 -0.13986 0 0 255
-0.00461 -0.05186 -0.19943 0 0 255
0.01467 -0.09996 -0.04151 0 0 255
-0.09807 -0.07253 0.0049 0 0 255
-0.06208 -0.02251 0.05509 0 0 255
0.02398 -0.04657 -0.09498 0 0 255
0.01041 -0.04411 -0.16699 0 0 255
0.02503 -0.04626 -0.10139 0 0 255
0.02071 -0.04626 -0.10555 0 0 255
-0.12944 -0.03716 0.03161 0 0 255
0.11933 -0.00275 -0.02205 0 0 255
0.01145 -0.04343 0.18262 0 0 255
0.01397 -0.04379 0.17167 0 0 255
0.02046 -0.04645 0.10104 0 0 255
0.02191 -0.04675 0.09244 0 0 255
0.01904 -0.04751 0.07675 0 0 255
-0.32614 0.0817 0.0015 0 0 255
-0.35593 0.09646 -0.06687 0 0 255
0.26033 -0.02611 0.03346 0 0 255
0.07075 -0.06495 0.02836 0 0 255
0.05607 -0.06217 0.05002 0 0 255
0.05119 -0.06291 0.04336 0 0 255
0.1138 -0.06541 -0.02436 0 0 255
-0.06971 -0.0152 -0.01879 0 0 255
-0.31832 0.10202 0.0044 0 0 255
-0.0875 -0.01419 -0.0379 0 0 255
-0.10368 -0.05706 0.0282 0 0 255
-0.13794 -0.01033 0.06529 0 0 255
0.26711 -0.09727 -0.00525 0 0 255
0.00094 -0.05497 0.12282 0 0 255
-0.00367 -0.01377 0.02979 0 0 255
-0.14524 -0.04397 -0.02703 0 0 255
-0.05642 -0.00696 -0.05358 0 0 255
-0.27223 -0.02179 0.00741 0 0 255
0.17034 -0.07528 0.00169 0 0 255
0.22759 -0.07551 0.00297 0 0 255
-0.31317 0.09646 0.06165 0 0 255
0.08739 -0.0767 0.01285 0 0 255
0.274 -0.0067 0.02429 0 0 255
0.01642 -0.05281 0.1673 0 0 255
0.02154 -0.05323 0.1617 0 0 255
0.03278 -0.05721 0.10039 0 0 255
0.03243 -0.05672 0.10812 0 0 255
0.02386 -0.05261 0.00132 0 0 255
-0.09953 -0.01474 0.01913 0 0 255
-0.12079 -0.01587 -0.03913 0 0 255
0.10014 -0.07459 0.01236 0 0 255
-0.04312 -0.03303 0.03537 0 0 255
0.05955 -0.03591 0.03566 0 0 255
-0.0916 -0.03504 0.03568 0 0 255
0.11272 -0.03642 0.03568 0 0 255
-0.09443 -0.03022 0.03505 0 0 255
0.1385 -0.03877 0.03596 0 0 255
-0.02079 -0.05226 0.03281 0 0 255
-0.0964 -0.01905 0.04094 0 0 255
-0.17063 -0.02953 -0.02709 0 0 255
0.12275 -0.02582 0.03365 0 0 255
-0.25965 0.06014 -0.00301 0 0 255
-0.06126 -0.0098 0.02788 0 0 255
0.00516 -0.01123 0.0284 0 0 255
-0.19254 0.00877 -0.00347 0 0 255
0.0004 -0.04174 -0.27513 0 0 255
0.32234 -0.07493 -0.00041 0 0 255
-0.292 0.09502 0.01025 0 0 255
0.01838 -0.04943 -0.22671 0 0 255
-0.1036 -0.02737 0.04006 0 0 255
-0.30866 0.06025 -0.00188 0 0 255
-0.26201 0.04921 -0.00307 0 0 255
-0.34078 0.09558 0.04564 0 0 255
-0.0994 -0.01113 0.02851 0 0 255
-0.33582 0.09699 -0.10676 0 0 255
-0.26983 0.06189 0.00295 0 0 255
-0.11153 -0.0148 -0.0164 0 0 255
0.29163 -0.0516 0.03282 0 0 255
-0.27386 0.05263 0.00286 0 0 255
-0.00381 -0.04675 0.28782 0 0 255
-0.35171 0.0967 -0.01248 0 0 255
-0.16338 -0.00109 -0.00388 0 0 255
0.04722 -0.04514 -0.13218 0 0 255
0.03666 -0.04414 -0.16225 0 0 255
0.03327 -0.0591 0.07264 0 0 255
-0.03142 -0.04537 -0.22553 0 0 255
-0.17093 -0.05193 -0.01045 0 0 255
-0.06108 -0.01888 -0.0431 0 0 255
0.03813 -0.09283 -0.04115 0 0 255
-0.03271 -0.04293 0.27792 0 0 255
-0.13196 -0.01587 -0.0279 0 0 255
-0.23 -0.0311 -0.01368 0 0 255
-0.00997 -0.0504 0.07486 0 0 255
0.06645 -0.05715 0.09752 0 0 255
0.02247 -0.07728 0.05337 0 0 255
0.25404 -0.02342 0.0327 0 0 255
-0.24686 -0.00957 0.0138 0 0 255
0.09873 -0.07158 -0.0223 0 0 255
-0.02733 -0.04655 -0.19068 0 0 255
-0.15884 -0.0118 -0.04879 0 0 255
-0.33359 0.09528 0.0379 0 0 255
-0.33838 0.09558 0.05277 0 0 255
0.01763 -0.06954 0.02063 0 0 255
0.28252 -0.06589 0.02489 0 0 255
-0.02169 -0.04859 0.23 0 0 255
-0.29111 0.10284 -0.00219 0 0 255
-0.10096 -0.01919 0.03348 0 0 255
-0.14575 -0.00682 0.05102 0 0 255
-0.00901 -0.04809 -0.25487 0 0 255
-0.00186 -0.05012 -0.20664 0 0 255
0.02055 -0.09857 -0.05182 0 0 255
-0.02135 -0.06069 -0.03921 0 0 255
0.00084 -0.04836 0.0872 0 0 255
-0.09256 -0.03469 0.05013 0 0 255
-0.34088 0.0995 0.07482 0 0 255
0.30467 -0.04281 0.03201 0 0 255
0.04073 -0.04457 0.15927 0 0 255
-0.03459 -0.04265 -0.29086 0 0 255
0.25906 -0.0719 0.00639 0 0 255
-0.05244 -0.01906 0.03206 0 0 255
0.146856 0.0586081 0.204082 255 0 0
-0.0913401 0.0753449 -0.269581 255 0 0
0.0835206 -0.0550169 0.146794 255 0 0
-0.189624 0.00144106 0.158883 255 0 0
0.337075 0.0304402 0.115372 255 0 0
-0.356164 -0.0460225 0.217518 255 0 0
0.306742 0.0767192 -0.101169 255 0 0
-0.0491034 -0.0759655 0.249257 255 0 0
-0.0131569 0.021244 0.301966 255 0 0
0.0291595 -0.0158293 -0.11981 255 0 0
-0.1292 0.041003 0.296435 255 0 0
0.349172 0.0353064 0.295786 255 0 0
-0.329003 -0.0224379 0.228915 255 0 0
0.344975 0.0130497 -0.194133 255 0 0
-0.307727 0.0345871 0.00836958 255 0 0
0.264618 0.0609489 -0.091656 255 0 0
-0.340347 0.0423421 -0.123926 255 0 0
-0.320929 0.00974122 -0.136928 255 0 0
-0.269938 0.0576986 0.281029 255 0 0
0.0769182 -0.0909764 -0.257345 255 0 0
-0.0031827 -0.0313246 -0.0947731 255 0 0
0.305991 -0.0928959 -0.140289 255 0 0
0.0673476 -0.0479187 0.306222 255 0 0
-0.0852791 -0.0265639 0.207012 255 0 0
-0.0775778 0.0425813 0.165172 255 0 0
-0.11178 -0.0714574 -0.0973949 255 0 0
-0.0431208 -0.00543527 0.265739 255 0 0
-0.329587 0.0579154 0.311664 255 0 0
0.262704 0.0942484 -0.303919 255 0 0
-0.271107 -0.102024 -0.0502378 255 0 0
-0.0772642 0.0118426 -0.210505 255 0 0
-0.349202 0.0798909 -0.19663 255 0 0
0.319088 -0.0373146 0.0879877 255 0 0
0.313144 0.0977365 -0.299031 255 0 0
-0.198702 0.0431141 0.101786 255 0 0
-0.125829 -0.0222559 0.308143 255 0 0
0.0888638 -0.0671273 -0.244698 255 0 0
0.321096 0.0459486 -0.12478 255 0 0
0.0682953 -0.057884 -0.0473844 255 0 0
-0.0982417 0.0596781 -0.0535961 255 0 0
0.142729 0.0810305 -0.00130484 255 0 0
-0.119051 -0.0718591 0.13723 255 0 0
-0.200399 -0.00226301 0.182658 255 0 0
0.0686142 -0.0490426 -0.139528 255 0 0
-0.16925 0.0558085 -0.0978584 255 0 0
-0.214609 0.0587875 0.181122 255 0 0
-0.116549 0.0983209 -0.268826 255 0 0
0.14 -0.049287 0.148604 255 0 0
0.131456 -0.0413442 -0.268979 255 0 0
-0.277459 0.0816708 0.0145706 255 0 0
0.065771 0.0283339 -0.271287 255 0 0
0.0320857 0.094545 0.108487 255 0 0
0.113924 0.0835884 0.138916 255 0 0
-0.35266 -0.0838018 0.286067 255 0 0
0.0189388 -0.097174 -0.29147 255 0 0
-0.153624 0.0412541 0.21379 255 0 0
-0.124065 -0.0886221 0.139654 255 0 0
-0.367549 0.0209924 0.208 255 0 0
0.302285 0.0408919 -0.11493 255 0 0
-0.0388965 -0.0623963 0.175118 255 0 0
0.0845105 -0.0215063 -0.291644 255 0 0
0.0922045 0.0696159 -0.251733 255 0 0
0.0570612 -0.0623148 -0.286398 255 0 0
-0.172672 -0.0181003 0.190409 255 0 0
0.215113 -0.0730598 0.0941806 255 0 0
-0.170329 0.0568733 -0.16723 255 0 0
-0.282333 -0.0509844 0.24961 255 0 0
-0.209424 -0.0363286 -0.0352142 255 0 0
0.347671 -0.0162878 -0.0602068 255 0 0
0.172567 -0.091897 -0.0932184 255 0 0
0.00920055 0.0177262 -0.204664 255 0 0
0.263035 -0.0920209 0.292656 255 0 0
-0.159698 -0.0454256 -0.171464 255 0 0
-0.0607194 -0.0589067 -0.114006 255 0 0
0.367023 0.0537858 -0.283052 255 0 0
0.260658 -0.00387406 -0.306839 255 0 0
0.166599 -0.0855849 -0.0970116 255 0 0
-0.193568 0.0733374 -0.272488 255 0 0
-0.0768322 -0.0548677 -0.137676 255 0 0
0.00512758 -0.0762344 -0.0822128 255 0 0
-0.10933 -0.0193679 0.0673168 255 0 0
-0.0129502 0.103923 0.164106 255 0 0
-0.18664 0.0307251 0.200203 255 0 0
-0.18962 0.0601616 -0.170095 255 0 0
-0.00863737 -0.0555111 0.190466 255 0 0
-0.340644 -0.038833 -0.116819 255 0 0
0.323191 -0.0856524 -0.181063 255 0 0
0.13039 0.0104519 0.136099 255 0 0
-0.223717 -0.0879552 -0.102272 255 0 0
-0.0176908 0.0433701 0.269538 255 0 0
0.255075 0.0506253 0.241614 255 0 0
-0.086558 0.0797151 -0.0309809 255 0 0
-0.208489 0.0277637 0.0590875 255 0 0
0.115196 -0.0223328 0.00723337 255 0 0
-0.359316 -0.0424327 0.265108 255 0 0
0.143495 -0.0132715 -0.101344 255 0 0
-0.196129 0.106548 0.139717 255 0 0
0.227681 -0.00587553 0.0851552 255 0 0
0.197032 0.0147538 0.147657 255 0 0
-0.370267 0.0750148 0.131743 255 0 0
0.043353 0.0334884 0.247151 255 0 0
0.247553 0.0558257 0.290872 255 0 0
