ply
format ascii 1.0
comment Created by Open3D
element vertex 130
property double x
property double y
property double z
property uchar red
property uchar green
property uchar blue
end_header
0.0749658 -0.074381 0.0845688 255 0 0
-0.312171 0.11459 0.0642627 255 0 0
0.0348963 -0.0534795 -0.172866 255 0 0
0.266714 0.013465 0.0360688 255 0 0
-0.31287 0.0611038 -0.0553231 255 0 0
0.0193196 -0.0873517 0.00665026 255 0 0
0.0382278 -0.0306086 0.0108079 255 0 0
0.0646486 -0.0389394 -0.0388243 255 0 0
0.235819 -0.0412275 0.0278395 255 0 0
0.036703 -0.0893125 -0.00855179 255 0 0
0.00220869 -0.0263009 -0.00956766 255 0 0
-0.0167336 -0.0147297 0.218849 255 0 0
0.0456047 -0.0783804 0.0876682 255 0 0
0.050728 -0.0297033 0.240296 255 0 0
0.00955187 -0.0240612 -0.151362 255 0 0
0.163199 -0.0204971 -0.0256187 255 0 0
-0.221079 0.0424171 -0.035271 255 0 0
-0.0286386 -0.00812087 0.100973 255 0 0
-0.0114513 -0.0142892 -0.0257691 255 0 0
-0.122386 -0.0309525 0.0719134 255 0 0
0.285827 0.0153876 -0.0411855 255 0 0
-0.131444 -0.0310197 -0.0716537 255 0 0
0.0535473 -0.091641 -0.0760353 255 0 0
0.274682 0.00666847 0.0202103 255 0 0
0.0518095 -0.0634324 0.103388 255 0 0
0.323172 -0.00484527 0.0197519 255 0 0
0.17699 -0.0423737 0.0202049 255 0 0
-0.166583 -0.0530116 0.0057493 255 0 0
-0.00535064 -0.0557125 -0.0649818 255 0 0
-0.0873712 -0.000158176 -0.0541912 255 0 0
-0.000674473 -0.0911632 0.224589 255 0 0
-0.0824033 -0.0253988 0.119578 255 0 0
0.355923 0.0193002 -0.0121887 255 0 0
0.203096 -0.091585 0.0584729 255 0 0
-0.338234 0.075021 -0.00196299 255 0 0
-0.0277103 -0.0379796 0.165926 255 0 0
-0.213101 0.0806387 0.0176328 255 0 0
0.204303 -0.050802 -0.0619615 255 0 0
0.0786179 -0.036262 0.122698 255 0 0
0.00806175 -0.0565626 -0.11282 255 0 0
0.368692 -0.0231615 0.0126203 255 0 0
-0.133432 0.00943962 -0.00748515 255 0 0
0.0305104 -0.0344937 0.0695049 255 0 0
0.0256786 -0.0794627 0.289547 255 0 0
-0.320396 0.0648287 -0.023491 255 0 0
0.283327 -0.0669467 0.0725464 255 0 0
0.0642111 -0.0356632 -0.0421052 255 0 0
0.034928 0.0370568 -0.000436998 255 0 0
0.0500125 -0.0688052 -0.171828 255 0 0
0.133203 -0.0745403 0.0666938 255 0 0
-0.0856867 0.00218901 0.0544527 255 0 0
-0.190226 0.0143567 0.0505514 255 0 0
0.0163096 -0.0132766 -0.0373127 255 0 0
-0.153601 0.00149027 -0.0796571 255 0 0
-0.0386908 -0.0928808 -0.0853121 255 0 0
0.0308655 -0.0638153 0.0423058 255 0 0
-0.0781873 -0.0304642 0.0093792 255 0 0
-0.103088 -0.039308 0.0782322 255 0 0
-0.165837 -0.0586944 -0.0674194 255 0 0
-0.0331286 -0.0751039 -0.0394234 255 0 0
0.0253277 -0.0645762 -0.199967 255 0 0
0.00500574 -0.0609993 0.0783747 255 0 0
0.138114 -0.117219 0.0134949 255 0 0
0.00723065 -0.0385334 -0.00207726 255 0 0
0.0293341 -0.0791372 0.176657 255 0 0
0.314828 -0.0321228 0.00807199 255 0 0
-0.249384 0.012361 -0.0288821 255 0 0
0.283939 -0.000809011 0.0622673 255 0 0
0.224483 -0.00495637 -0.00274428 255 0 0
-0.289275 0.0299936 -0.042651 255 0 0
0.0658679 -0.0293839 0.117008 255 0 0
-0.0619196 -0.0729178 0.00107269 255 0 0
-0.089685 -0.0675341 -0.0612947 255 0 0
0.103419 -0.0225859 -0.0621908 255 0 0
-0.0808369 -0.0427434 0.0083544 255 0 0
-0.166355 -0.00368724 -0.010318 255 0 0
0.0575513 -0.0831399 0.113961 255 0 0
0.26392 0.0519337 0.0189533 255 0 0
-0.102459 -0.0688108 0.0160172 255 0 0
0.0867821 -0.0255614 0.00529543 255 0 0
-0.243174 0.0409559 -0.0327072 255 0 0
-0.0159336 0.0036673 -0.0382892 255 0 0
0.128333 -0.101253 -0.0298567 255 0 0
-0.000626184 -0.0115216 -0.194752 255 0 0
-0.207206 -0.0173822 0.0292454 255 0 0
0.0501658 -0.00794319 -0.172487 255 0 0
-0.137204 -0.0189084 -0.06993 255 0 0
0.0251424 -0.0472563 0.0315624 255 0 0
0.286482 -0.083055 -0.0193812 255 0 0
0.125631 -0.00649199 0.0225646 255 0 0
-0.325402 0.0935646 -0.0893396 255 0 0
0.0553569 -0.0662155 0.280685 255 0 0
-0.0465071 -0.0217998 -0.0161122 255 0 0
-0.322665 0.0906555 0.0592096 255 0 0
-0.0433596 -0.00893253 -0.276607 255 0 0
-0.00882049 -0.0436009 0.253161 255 0 0
0.301275 -0.0356981 0.0254418 255 0 0
0.245502 0.00442805 -0.000817915 255 0 0
-0.158961 -0.0323848 -0.0664196 255 0 0
-0.256818 -0.0434256 -0.0306378 255 0 0
-0.0195919 -0.124656 -0.0336911 255 0 0
-0.13776 -0.0372133 0.0700426 255 0 0
0.336912 -0.0114145 -0.0151854 255 0 0
0.0305376 -0.0565813 0.010063 255 0 0
-0.319374 0.0870292 0.020001 255 0 0
0.245215 -0.11052 0.0408634 255 0 0
-0.0824989 -0.0373269 -0.0848058 255 0 0
0.340795 -0.0736853 -0.0281542 255 0 0
-0.256949 0.103517 0.030005 255 0 0
0.0452797 -0.0894406 0.00240832 255 0 0
0.376387 -0.0738908 0.00829431 255 0 0
0.0739668 0.0518089 -0.0278005 255 0 0
0.35366 0.00716475 -0.0363402 255 0 0
0.205897 -0.0593638 -0.0222801 255 0 0
0.185846 -0.0131175 -0.0644062 255 0 0
-0.196502 0.0522268 -0.0240161 255 0 0
0.385078 -0.0329906 0.0287132 255 0 0
0.0187385 -0.0329543 0.332651 255 0 0
-0.286329 0.0289768 0.0303456 255 0 0
0.0433617 -0.0698174 0.223178 255 0 0
0.380701 -0.046475 -0.0318302 255 0 0
-0.0722934 0.0275867 -0.0957057 255 0 0
0.0377595 -0.0903083 -0.075053 255 0 0
0.269515 0.00727926 0.0551221 255 0 0
-0.0669363 -0.100203 0.0477779 255 0 0
0.100319 -0.00218924 0.0520509 255 0 0
-0.362021 0.120627 0.0603997 255 0 0
-0.119589 -0.0562512 0.00100244 255 0 0
-0.0359466 -0.101731 -0.04082 255 0 0
-0.292715 0.102958 0.0477841 255 0 0
