ply
format ascii 1.0
comment Created by Open3D
element vertex 130
property double x
property double y
property double z
property uchar red
property uchar green
property uchar blue
end_header
0.146856 0.0586081 0.204082 255 0 0
-0.0913401 0.0753449 -0.269581 255 0 0
0.0835206 -0.0550169 0.146794 255 0 0
-0.189624 0.00144106 0.158883 255 0 0
0.337075 0.0304402 0.115372 255 0 0
-0.356164 -0.0460225 0.217518 255 0 0
0.306742 0.0767192 -0.101169 255 0 0
-0.0491034 -0.0759655 0.249257 255 0 0
-0.0131569 0.021244 0.301966 255 0 0
0.0291595 -0.0158293 -0.11981 255 0 0
-0.1292 0.041003 0.296435 255 0 0
0.349172 0.0353064 0.295786 255 0 0
-0.329003 -0.0224379 0.228915 255 0 0
0.344975 0.0130497 -0.194133 255 0 0
-0.307727 0.0345871 0.00836958 255 0 0
0.264618 0.0609489 -0.091656 255 0 0
-0.340347 0.0423421 -0.123926 255 0 0
-0.320929 0.00974122 -0.136928 255 0 0
-0.269938 0.0576986 0.281029 255 0 0
0.0769182 -0.0909764 -0.257345 255 0 0
-0.0031827 -0.0313246 -0.0947731 255 0 0
0.305991 -0.0928959 -0.140289 255 0 0
0.0673476 -0.0479187 0.306222 255 0 0
-0.0852791 -0.0265639 0.207012 255 0 0
-0.0775778 0.0425813 0.165172 255 0 0
-0.11178 -0.0714574 -0.0973949 255 0 0
-0.0431208 -0.00543527 0.265739 255 0 0
-0.329587 0.0579154 0.311664 255 0 0
0.262704 0.0942484 -0.303919 255 0 0
-0.271107 -0.102024 -0.0502378 255 0 0
-0.0772642 0.0118426 -0.210505 255 0 0
-0.349202 0.0798909 -0.19663 255 0 0
0.319088 -0.0373146 0.0879877 255 0 0
0.313144 0.0977365 -0.299031 255 0 0
-0.198702 0.0431141 0.101786 255 0 0
-0.125829 -0.0222559 0.308143 255 0 0
0.0888638 -0.0671273 -0.244698 255 0 0
0.321096 0.0459486 -0.12478 255 0 0
0.0682953 -0.057884 -0.0473844 255 0 0
-0.0982417 0.0596781 -0.0535961 255 0 0
0.142729 0.0810305 -0.00130484 255 0 0
-0.119051 -0.0718591 0.13723 255 0 0
-0.200399 -0.00226301 0.182658 255 0 0
0.0686142 -0.0490426 -0.139528 255 0 0
-0.16925 0.0558085 -0.0978584 255 0 0
-0.214609 0.0587875 0.181122 255 0 0
-0.116549 0.0983209 -0.268826 255 0 0
0.14 -0.049287 0.148604 255 0 0
0.131456 -0.0413442 -0.268979 255 0 0
-0.277459 0.0816708 0.0145706 255 0 0
0.065771 0.0283339 -0.271287 255 0 0
0.0320857 0.094545 0.108487 255 0 0
0.113924 0.0835884 0.138916 255 0 0
-0.35266 -0.0838018 0.286067 255 0 0
0.0189388 -0.097174 -0.29147 255 0 0
-0.153624 0.0412541 0.21379 255 0 0
-0.124065 -0.0886221 0.139654 255 0 0
-0.367549 0.0209924 0.208 255 0 0
0.302285 0.0408919 -0.11493 255 0 0
-0.0388965 -0.0623963 0.175118 255 0 0
0.0845105 -0.0215063 -0.291644 255 0 0
0.0922045 0.0696159 -0.251733 255 0 0
0.0570612 -0.0623148 -0.286398 255 0 0
-0.172672 -0.0181003 0.190409 255 0 0
0.215113 -0.0730598 0.0941806 255 0 0
-0.170329 0.0568733 -0.16723 255 0 0
-0.282333 -0.0509844 0.24961 255 0 0
-0.209424 -0.0363286 -0.0352142 255 0 0
0.347671 -0.0162878 -0.0602068 255 0 0
0.172567 -0.091897 -0.0932184 255 0 0
0.00920055 0.0177262 -0.204664 255 0 0
0.263035 -0.0920209 0.292656 255 0 0
-0.159698 -0.0454256 -0.171464 255 0 0
-0.0607194 -0.0589067 -0.114006 255 0 0
0.367023 0.0537858 -0.283052 255 0 0
0.260658 -0.00387406 -0.306839 255 0 0
0.166599 -0.0855849 -0.0970116 255 0 0
-0.193568 0.0733374 -0.272488 255 0 0
-0.0768322 -0.0548677 -0.137676 255 0 0
0.00512758 -0.0762344 -0.0822128 255 0 0
-0.10933 -0.0193679 0.0673168 255 0 0
-0.0129502 0.103923 0.164106 255 0 0
-0.18664 0.0307251 0.200203 255 0 0
-0.18962 0.0601616 -0.170095 255 0 0
-0.00863737 -0.0555111 0.190466 255 0 0
-0.340644 -0.038833 -0.116819 255 0 0
0.323191 -0.0856524 -0.181063 255 0 0
0.13039 0.0104519 0.136099 255 0 0
-0.223717 -0.0879552 -0.102272 255 0 0
-0.0176908 0.0433701 0.269538 255 0 0
0.255075 0.0506253 0.241614 255 0 0
-0.086558 0.0797151 -0.0309809 255 0 0
-0.208489 0.0277637 0.0590875 255 0 0
0.115196 -0.0223328 0.00723337 255 0 0
-0.359316 -0.0424327 0.265108 255 0 0
0.143495 -0.0132715 -0.101344 255 0 0
-0.196129 0.106548 0.139717 255 0 0
0.227681 -0.00587553 0.0851552 255 0 0
0.197032 0.0147538 0.147657 255 0 0
-0.370267 0.0750148 0.131743 255 0 0
0.043353 0.0334884 0.247151 255 0 0
0.247553 0.0558257 0.290872 255 0 0
0.143859 -0.0883313 0.0946797 255 0 0
-0.0691206 0.0663945 -0.304316 255 0 0
0.114016 -0.0596006 0.065664 255 0 0
0.294655 -0.0965266 0.203808 255 0 0
-0.201651 -0.0103951 -0.0688308 255 0 0
-0.240068 0.079385 -0.0931506 255 0 0
-0.24806 0.00366147 -0.284667 255 0 0
-0.113711 -0.023191 -0.166875 255 0 0
0.0285769 -0.104989 0.193778 255 0 0
-0.275794 -0.08247 0.0818675 255 0 0
-0.238806 0.0877345 -0.120967 255 0 0
-0.138678 0.0633432 -0.312014 255 0 0
0.148329 -0.0346872 -0.123417 255 0 0
0.165416 0.0551676 -0.103933 255 0 0
0.154811 -0.0742066 -0.0266638 255 0 0
0.0614883 0.0145257 -0.0222662 255 0 0
0.365474 -0.106313 -0.0830202 255 0 0
-0.209466 -0.0827058 0.125625 255 0 0
-0.300502 0.0667764 -0.113738 255 0 0
-0.323695 -0.0501723 -0.203885 255 0 0
-0.22623 -0.0947174 0.105958 255 0 0
-0.303029 0.043436 -0.206304 255 0 0
0.133887 -0.00974863 -0.289274 255 0 0
0.130144 0.0975393 0.130185 255 0 0
0.099308 0.0718348 -0.271816 255 0 0
-0.044866 -0.0380246 -0.126167 255 0 0
0.324379 -0.0864215 -0.0893101 255 0 0
-0.345685 -0.0370589 -0.214917 255 0 0
